25.8512,4.98254,0.0499992
8.19939,10.3435,0.0666656
4.0015,10.7676,0.083334
3.39687,9.91693,0.0999985
5.09204,6.69689,0.116667
5.24564,5.37109,0.133333
31.439,7.37901,0.0
30.5287,5.16038,0.0166664
26.0508,7.69996,0.0333328
13.0412,7.04363,0.0499992
1.29956,8.22092,0.0666656
1.22797,10.4072,0.083334
1.29902,11.8453,0.0999985
4.5937,9.21581,0.116667
19.7055,8.98132,0.133333
2.92574,7.89536,23.9667
3.03707,9.64857,23.9833
17.0472,14.1121,0.0
40.9348,9.55919,0.0166664
18.4993,5.25383,0.0333328
2.83547,6.13622,0.0499992
2.20648,7.50732,0.0666656
0.0835023,11.5515,0.083334
1.65473,12.6065,0.0999985
8.40934,10.1034,0.116667
18.9016,10.4663,0.133333
14.1158,11.2536,23.9833
33.1792,15.722,0.0
40.0145,10.2958,0.0166664
10.259,11.9603,0.0333328
22.0424,7.91866,0.0499992
13.3027,5.97657,0.0666656
0.369492,8.67432,0.083334
1.6524,7.90982,0.0999985
4.56264,9.13304,0.116667
3.66125,11.5306,0.133333
3.99047,14.0868,0.150002
17.5508,7.26773,23.9833
9.6826,10.7436,0.0
14.9298,5.95104,0.0166664
15.7564,8.24177,0.0333328
6.4017,9.96614,0.0499992
5.62401,7.62858,0.116667
2.5618,8.41781,0.133333
3.63588,12.1738,0.150002
6.00157,15.6311,23.9833
26.2083,5.28989,0.0
2.21085,3.74115,0.0166664
5.64665,16.0588,0.0333328
10.693,13.625,0.0499992
5.7928,6.1984,0.116667
2.6929,8.70438,0.133333
1.979,12.4367,0.150002
19.8789,9.91899,0.0
3.19813,8.53443,0.0166664
8.49738,14.0524,0.0499992
3.03497,9.63888,0.116667
4.58909,12.0296,0.133333
3.26211,13.5262,0.150002
2.73243,13.9812,0.166666
19.0301,6.46358,0.0
1.59948,2.96592,0.0166664
0.963577,3.56263,0.0666656
0.0,4.75614,0.083334
0.423893,8.00737,0.0999985
1.83553,12.1249,0.116667
2.86438,13.4313,0.133333
2.01641,14.0647,0.150002
0.178893,13.996,0.166666
11.5293,7.74293,0.0
0.731277,4.52603,0.0666656
1.49154,5.67947,0.083334
0.15242,9.61152,0.0999985
1.53731,12.9249,0.116667
1.84846,13.7623,0.133333
1.22176,14.388,0.150002
0.0447827,14.009,0.166666
0.0301829,5.16398,0.083334
0.0467774,9.06378,0.0999985
0.858324,11.4938,0.116667
1.15633,13.963,0.133333
0.230553,14.299,0.150002
0.0102878,13.863,0.166666
0.0,13.65,0.183334
0.307728,10.5448,0.116667
0.833785,13.4944,0.133333
0.409673,14.1395,0.150002
0.0942582,14.0042,0.166666
0.0162285,13.65,0.183334
0.172315,12.0131,0.133333
0.115065,13.7725,0.150002
0.223553,13.5788,0.166666
0.04502,13.555,0.183334
0.0267113,11.2323,0.150002
0.0340338,12.8604,0.166666
0.0,13.3288,0.183334
0.0,13.1588,0.200001
0.00866253,12.3096,0.183334
0.0,12.8531,0.200001
3.1199,2.88917,0.366667
1.84064,4.72505,0.366667
2.89365,5.84678,0.366667
1.24355,6.96854,0.383333
0.381474,7.35534,0.35
0.0,4.44146,0.366667
0.0,8.62523,0.35
0.748678,9.06852,1.96667
1.32714,6.29831,1.96667
0.0927438,6.5864,1.98333
15.9725,0.0164968,11.3167
2.22938,0.491797,11.25
3.87745,2.01045,11.3167
0.0,3.79122,11.3667
5.74363,3.25547,11.3167
6.80514,4.09144,11.3333
2.98784,5.68547,11.35
1.39243,5.71367,11.3667
0.0879432,4.29564,11.3833
3.61815,2.77747,11.3
3.0077,3.71697,11.3167
6.87476,4.85017,11.3333
12.3797,6.10424,11.35
15.1414,6.12522,11.3667
1.47446,5.08066,11.3833
1.72796,2.7465,11.2833
3.26661,3.20672,11.3
6.08633,3.91299,11.3167
8.59682,4.82651,11.3333
5.46649,5.70523,11.35
3.09009,6.04651,11.3667
1.09062,5.54575,11.3833
0.0,4.40724,11.4
1.09039,2.69749,11.2833
4.14998,3.37573,11.3
9.48103,4.19849,11.3167
9.68561,4.55898,11.3333
10.483,5.17328,11.35
3.32915,5.26829,11.3667
9.04072,5.00502,11.3833
1.14135,2.66949,11.2833
4.76071,3.66997,11.3
9.34144,3.93344,11.3167
8.89117,4.31891,11.3333
8.6252,5.51644,11.35
5.83583,6.07241,11.3667
8.64505,5.31568,11.3833
0.885475,2.491,11.2833
5.3897,3.92099,11.3
8.3515,5.1146,11.3167
6.95581,6.38828,11.3333
18.5375,6.34932,11.35
8.17189,6.97038,11.3667
12.5883,6.68242,11.3833
5.778,3.06658,11.3
8.74415,4.73813,11.3167
6.78749,7.07018,11.3333
8.77717,8.39724,11.35
8.04798,7.86012,11.3667
4.65612,6.44214,11.3333
5.01888,8.49005,11.35
17.5028,8.74317,11.3667
0.0483529,7.51511,11.3667
0.335847,2.87288,10.8333
10.0849,1.46416,10.7333
11.699,1.7111,10.75
1.43837,3.75634,10.8
5.50882,7.0122,10.8167
3.03547,7.11089,10.8333
3.18909,5.38065,10.85
9.79642,2.05361,10.7333
10.326,3.02593,10.75
11.6875,3.54573,10.7667
7.78671,4.41797,10.7833
3.47083,7.54996,10.8
3.46098,9.19305,10.8167
3.73457,8.89103,10.8333
3.69485,7.25485,10.85
4.56959,3.33143,10.75
6.71434,4.36553,10.7667
8.97903,7.08474,10.7833
9.47924,11.1866,10.8
2.64817,10.4656,10.8167
3.02508,10.4987,10.8333
5.63969,9.19998,10.85
11.7641,3.73433,10.75
8.72202,4.60594,10.7667
6.18068,6.80549,10.7833
23.7067,10.9603,10.8
23.6762,11.153,10.8167
6.36991,11.1904,10.8333
4.57728,9.32204,10.8333
2.04516,4.4615,11.85
1.82743,4.88344,11.8333
3.41306,6.49192,11.85
2.06742,4.51164,11.8167
3.28717,6.61166,11.8333
1.95862,6.11418,11.8167
2.50561,6.93359,11.8333
5.6929,14.9276,11.8
1.31259,7.85666,11.8167
2.57914,8.05994,11.8333
1.06245,3.49723,11.75
14.728,3.64727,11.7667
28.1748,4.12422,11.7833
6.35376,14.8094,11.8167
3.80851,10.738,11.8167
0.299816,8.17948,11.8167
0.0741456,1.58949,23.9667
0.0,2.20924,23.9667
0.0337029,2.74897,0.25
1.63252,2.75736,0.0166664
3.71302,9.13557,23.9833
1.74931,7.1628,0.0
0.269563,5.40955,0.0166664
0.00542191,4.90874,0.0333328
8.2437,13.8029,23.9833
2.40605,9.02177,0.0
0.790454,9.43084,0.0166664
0.0163122,9.39332,0.0333328
0.147784,6.46067,0.0499992
0.200394,2.97875,0.0666656
3.09589,9.44434,0.0
3.87544,11.8782,0.0166664
0.140346,12.2885,0.0333328
0.17068,7.71274,0.0499992
17.5641,7.85258,0.0
9.15928,12.8248,0.0166664
2.42239,11.3002,0.0333328
0.72445,5.91562,0.0499992
0.138474,2.89857,0.0666656
21.6052,7.06272,0.0333328
7.23733,6.53513,0.0499992
8.06276,7.19118,0.0166664
0.0686441,6.6538,0.0333328
0.0304687,6.83053,0.0333328
1.54649,3.94464,1.51667
5.69066,6.98711,10.9667
2.42621,5.91934,10.9833
7.34899,5.68212,10.95
18.0444,7.50259,10.9667
11.5439,7.10114,10.9833
8.7235,6.80085,11.0
3.89745,3.96161,11.0167
1.02444,4.27411,10.95
8.64158,5.51895,10.9667
13.5497,7.54168,10.9833
12.2104,7.02741,11.0
10.606,4.21588,11.0167
0.996594,5.13119,10.95
4.68427,6.34258,10.9667
9.34203,5.76506,10.9833
6.56982,4.39137,11.0
2.92346,3.99382,10.9833
0.686144,2.95123,11.0
6.57089,7.74412,11.4
0.0,9.59298,11.1
0.0492539,10.6434,11.1
0.0103363,11.4347,11.1
0.0,11.3387,11.0833
0.0103215,11.2177,11.1
0.057555,12.3157,11.0833
0.00565877,11.7359,11.1
0.0369985,12.755,11.0833
0.0,12.1691,11.0667
0.00775772,12.4871,11.0833
0.0,12.7702,11.0667
4.72338,2.86948,23.6333
3.29372,2.01965,23.65
7.42341,5.76273,23.65
0.0,1.44573,23.7833
0.0,1.30921,23.8
0.0,0.750926,23.7333
0.0,1.33242,23.75
0.0,1.71815,23.7667
0.0,2.05393,23.7833
0.0,2.08843,23.8
0.0,2.12264,23.8167
0.0,2.52263,23.8333
0.0,1.29311,23.7167
0.0,2.06308,23.7333
0.0,2.62109,23.75
0.0,2.97561,23.7667
0.0,3.55259,23.7833
0.0,3.3031,23.8
0.0,3.52631,23.8167
0.0,3.7714,23.8333
0.0,3.8364,23.85
0.0,2.0194,23.7
0.0,2.58194,23.7167
0.0,3.3579,23.7333
0.0,4.01862,23.75
0.0,4.00866,23.7667
0.0,4.39444,23.7833
0.0,4.68819,23.8
0.0,4.80545,23.8167
0.0,4.7144,23.8333
0.0,4.39672,23.85
0.0,2.13842,23.6833
0.0,3.20467,23.7
0.0,4.11041,23.7167
0.00570084,5.43295,23.7333
0.0,5.73645,23.75
0.0,5.66644,23.7667
0.0,5.9914,23.7833
0.00717951,6.48424,23.8
0.0,5.6022,23.8167
0.0,5.44095,23.8333
0.0,5.02027,23.85
0.0,3.7736,23.6833
0.0,5.33115,23.7
0.0,6.28763,23.7167
0.0,6.56839,23.7333
0.0,7.05718,23.75
0.0,6.86396,23.7667
0.0,7.81841,23.7833
0.02297,8.55689,23.8
0.00562494,7.78669,23.8167
0.0,6.24495,23.8333
0.0,6.3609,23.85
0.0,5.77721,23.8667
0.0,6.32966,23.7
0.0,8.24088,23.7167
0.00532058,8.82533,23.7333
0.0153788,8.81249,23.75
0.0190017,7.68537,23.7667
0.0052767,8.19204,23.7833
0.00640266,10.714,23.8
0.0,8.6287,23.8167
0.0147569,7.04956,23.8333
1.03792,6.98424,23.85
2.12099,6.23068,23.8667
0.0,7.81531,23.7
0.0783769,9.42868,23.7167
0.0377207,10.0593,23.7333
0.081287,10.1409,23.75
0.0923755,10.178,23.7667
0.0244571,11.2942,23.7833
0.0399217,11.9151,23.8
0.0926004,9.73328,23.8167
0.937562,8.74459,23.8333
1.09834,7.77024,23.85
1.24995,6.84898,23.8667
0.390281,10.1075,23.7167
0.672212,11.5894,23.7333
1.08267,12.3457,23.75
0.507484,13.3711,23.7667
0.0569072,13.9864,23.7833
0.0693921,13.2885,23.8
0.385138,12.4582,23.8167
1.07601,9.59476,23.8333
2.03863,9.26337,23.85
1.3654,8.05293,23.8667
0.894982,6.45617,23.8833
0.642613,9.57856,23.7167
1.44401,12.1722,23.7333
1.49755,15.1725,23.75
1.10959,15.3425,23.7667
1.52478,14.8875,23.7833
0.75583,14.0854,23.8
0.871387,12.7226,23.8167
1.10983,10.8567,23.8333
1.17145,11.0014,23.85
2.15193,9.36992,23.8667
0.711392,7.31141,23.8833
2.21937,12.1351,23.7167
3.20539,15.084,23.7333
3.75179,15.646,23.75
3.41653,15.395,23.7667
2.33499,15.08,23.7833
3.77239,14.6278,23.8
1.75124,13.3434,23.8167
0.760119,12.9412,23.8333
1.82576,11.9679,23.85
0.700849,11.1586,23.8667
1.91582,7.83784,23.8833
2.80432,15.2673,23.7167
3.46211,15.6111,23.7333
4.6334,15.646,23.75
4.36702,15.395,23.7667
4.64328,15.08,23.7833
8.25751,14.7647,23.8
7.22202,14.4075,23.8167
4.09723,14.3282,23.8333
4.42747,14.2862,23.85
2.24497,13.2593,23.8667
2.41826,8.93716,23.8833
3.05295,7.2877,23.9
3.85728,15.999,23.7333
5.41706,15.646,23.75
9.88266,15.395,23.7667
4.28148,15.08,23.7833
5.80373,14.7813,23.8
8.31914,14.4905,23.8167
7.3801,14.4163,23.8333
7.2286,14.1987,23.85
6.91276,13.4486,23.8667
4.48359,10.1139,23.8833
0.999709,7.83394,23.9
9.56225,15.999,23.7333
9.17213,15.646,23.75
15.3634,15.395,23.7667
14.5174,15.08,23.7833
4.66566,14.6977,23.8
8.68955,13.9888,23.8167
9.19245,14.2135,23.8333
6.8512,14.3,23.85
6.13708,13.9533,23.8667
7.26506,11.1502,23.8833
2.26059,8.70815,23.9
0.263844,7.15641,23.9167
11.5847,15.2605,23.75
17.9093,15.16,23.7667
6.16487,15.08,23.7833
16.7353,14.77,23.8
22.4742,14.4855,23.8167
7.9744,14.4195,23.8333
13.8897,14.3245,23.85
4.19965,14.0505,23.8667
7.64718,12.1412,23.8833
5.44727,10.4448,23.9
1.29718,7.72822,23.9167
0.397856,15.4255,23.75
0.143578,15.395,23.7667
1.41651,14.905,23.7833
2.65774,14.618,23.8
4.53819,14.0183,23.8167
4.91822,12.8473,23.8333
12.7395,12.8919,23.85
4.15205,11.5373,23.8667
5.37751,10.5585,23.8833
7.19292,10.1852,23.9
4.14298,7.57359,23.9167
0.0,14.5705,23.75
2.62716,14.8764,23.7667
3.72378,14.6343,23.7833
6.26753,14.2309,23.8
4.76673,11.6412,23.8167
1.22237,12.4013,23.8333
3.98578,11.745,23.85
9.96702,11.5851,23.8667
3.93437,11.5704,23.8833
7.28205,9.88212,23.9
4.97601,7.99714,23.9167
0.767804,6.28102,23.9333
0.748254,9.41646,23.7667
0.385143,9.49492,23.7833
1.45061,7.83236,23.8
3.7129,7.01512,23.8167
7.5751,8.71706,23.8333
4.00358,10.9477,23.85
6.75711,13.911,23.8667
8.26645,12.4731,23.8833
6.76439,10.0624,23.9
5.63903,7.22145,23.9167
3.33879,6.05076,23.9333
0.0,4.50998,23.7667
0.0,4.5507,23.7833
0.0976019,4.05414,23.8
0.473491,4.42516,23.8167
12.093,7.30863,23.8333
18.2737,11.5308,23.85
8.6319,13.7337,23.8667
17.3909,13.6255,23.8833
6.79658,11.2134,23.9
4.57142,7.6347,23.9167
2.19843,5.14078,23.9333
2.58564,15.8162,23.7833
0.38001,14.1101,23.8
0.0445441,3.51786,23.8167
0.268422,4.92082,23.8333
9.32445,10.8743,23.85
4.87099,12.7167,23.8667
27.4463,13.5063,23.8833
6.25334,9.81156,23.9
4.11609,6.13833,23.9167
1.66223,4.63231,23.9333
0.168914,10.0558,23.95
2.51758,9.92659,23.7833
0.0229456,9.98138,23.8
0.0062816,6.53625,23.8167
0.0,8.03961,23.8333
3.24549,8.69728,23.85
5.09854,11.2679,23.8667
27.776,10.577,23.8833
4.79138,8.27314,23.9
3.15041,5.49814,23.9167
1.61901,4.73159,23.9333
1.44944,6.70825,23.95
0.249074,10.4935,23.7833
3.39785,11.6007,23.8
0.0663807,9.1095,23.8167
0.0766757,8.41864,23.8333
1.24788,4.58218,23.85
8.16451,7.70868,23.8667
20.1772,8.08423,23.8833
6.83332,5.6414,23.9
2.89874,3.37916,23.9167
0.45613,3.49818,23.9333
1.02481,5.44227,23.95
4.70727,9.20051,23.7833
18.7176,11.7666,23.8
6.34756,9.47406,23.8167
1.10493,6.00203,23.8333
1.38031,3.33266,23.85
6.55926,4.62056,23.8667
5.1918,6.77472,23.8833
1.9878,3.88061,23.9
3.05969,1.91028,23.9167
1.30139,3.50158,23.9333
0.97129,2.37553,23.95
1.09279,3.07388,23.9667
10.5568,11.6587,23.8
25.9605,11.263,23.8167
7.54803,4.96431,23.8333
4.94439,4.4133,23.85
8.46379,3.09895,23.8667
1.46884,2.62461,23.8833
4.11912,1.4776,23.9
4.63836,0.676782,23.9167
5.85065,12.5977,23.8
3.24036,12.8838,23.8167
3.51351,7.63874,23.8333
3.99184,3.03488,23.85
8.91602,2.7897,23.8667
3.60682,2.36053,23.8833
3.6232,1.67053,23.9
3.46551,2.44043,23.9167
4.51028,11.8097,23.8
2.00313,11.0285,23.8167
1.4768,7.86985,23.8333
4.03054,3.89637,23.85
5.03653,3.142,23.8667
2.75436,1.83641,23.8833
1.93898,1.80815,23.9
10.1597,1.50596,23.9167
7.74904,1.3607,23.9333
0.824964,0.984791,23.95
11.4043,7.7411,23.8167
3.44034,6.1392,23.8333
1.62427,4.84474,23.85
2.83377,3.245,23.8667
1.26644,1.8775,23.8833
4.03532,1.99074,23.9
0.810065,1.77317,23.9167
0.954601,1.52051,23.9333
13.3982,6.15168,23.8167
11.5363,5.6704,23.8333
1.63169,4.37753,23.85
1.79508,3.95771,23.8667
2.96599,3.14849,23.8833
2.24398,2.41188,23.9
0.0876057,2.10796,23.9167
5.6025,1.47933,23.9333
0.999494,4.24029,23.8167
0.561368,4.44846,23.8333
0.983913,3.72584,23.85
0.510701,3.06252,23.8667
0.152325,2.54302,23.8833
0.837662,2.32274,23.8333
0.237434,1.97556,23.85
0.0320244,1.92508,23.8667
0.517336,1.80779,23.8833
7.12312,4.88632,10.3833
3.53178,8.22481,11.1
3.86836,5.13125,11.1167
16.0611,13.843,11.25
5.77418,9.94376,11.2667
2.97032,6.59803,11.1
13.6316,20.2873,11.1833
16.4224,19.7496,11.2
22.2123,8.47314,11.2167
18.6823,6.80548,11.2333
15.4509,9.05029,11.25
11.244,8.09225,11.2667
3.60197,5.86648,11.1333
6.05887,5.30275,11.15
11.1116,6.53705,11.1667
19.9142,9.83336,11.1833
14.9897,11.2819,11.2
14.5649,8.60886,11.2167
11.1635,3.83924,11.2333
5.22836,4.32325,11.25
1.20873,3.48325,11.0833
3.60354,4.144,11.1
6.64999,5.08147,11.1333
9.81208,4.83175,11.15
10.3379,5.35128,11.1667
16.0815,4.61,11.1833
9.74819,5.77484,11.2
9.69993,4.62349,11.2167
4.93541,2.89219,11.2333
1.3149,2.517,11.1
1.27805,3.71926,11.1167
2.63608,5.18957,11.1333
6.11558,2.91798,11.15
9.32454,4.32077,11.1667
10.4554,4.6255,11.1833
7.15401,5.03956,11.2
3.82361,2.51899,11.2167
2.20502,1.9695,11.1167
6.17282,4.26734,11.1333
7.82609,3.04523,11.15
3.74109,3.50423,11.2
3.42917,4.01848,11.2167
1.34109,1.04575,11.0833
2.32871,1.54098,11.1
2.2867,2.87449,11.1167
7.38839,4.11334,11.1667
6.31445,7.24787,11.0833
6.60178,4.4448,11.1
14.9856,4.43501,11.0667
10.5209,4.01984,11.0833
0.322858,2.93642,11.3833
6.22338,10.8088,11.35
26.6927,7.97396,11.3667
2.37953,6.08636,11.35
3.51963,5.05208,11.3667
6.00967,2.68197,11.25
3.10729,5.74249,10.5833
5.10538,5.89154,10.6
5.72929,5.65159,10.6167
23.5095,7.38278,10.55
2.93971,6.52546,10.5667
2.74268,6.07952,10.5833
2.35625,5.59578,10.6
2.38641,5.2406,10.6167
2.39639,6.4994,10.6333
8.41793,8.63717,10.55
4.42921,6.6073,10.5667
2.07606,5.85334,10.5833
1.41117,4.75809,10.6
2.37414,4.90149,10.6167
1.54138,5.5452,10.6333
0.744002,6.05348,10.65
13.3441,7.79462,10.55
8.82552,6.62917,10.5667
0.148174,5.89088,10.5833
0.0398394,4.94688,10.6
0.202443,5.81114,10.6167
1.68403,6.31922,10.6333
1.56917,5.77868,10.65
22.699,7.03657,10.55
27.5247,7.08087,10.5667
1.04181,6.81554,10.5833
0.54455,6.21091,10.6
0.593147,6.29484,10.6167
0.736459,7.54945,10.6333
1.96611,6.02784,10.65
0.763139,4.82611,10.6667
23.936,6.86187,10.55
62.3523,6.75876,10.5667
6.32558,6.29983,10.5833
2.01984,5.38565,10.6
5.4832,5.41125,10.6167
3.53406,6.43175,10.6333
1.81454,6.65093,10.65
1.17373,5.39935,10.6667
9.47848,1.68484,10.4833
6.25694,6.15697,10.5333
46.4831,7.07715,10.55
65.1183,6.30188,10.5667
11.1205,5.25966,10.5833
2.81041,4.45878,10.6
5.9991,5.2968,10.6167
5.58154,5.43534,10.6333
2.80949,5.76548,10.65
45.0217,4.60095,10.55
26.5942,5.88144,10.5667
5.53768,5.26052,10.5833
3.67282,4.80408,10.6
7.09124,4.6868,10.6167
6.12582,4.99092,10.6333
3.03415,4.27192,10.65
20.7723,4.51945,10.5667
10.1237,5.21093,10.5833
2.62399,4.94774,10.6
8.54448,5.60133,10.6167
6.70137,7.78262,10.6333
5.38569,6.2594,10.65
14.7852,8.21973,10.6
7.40243,6.96007,10.6167
14.7214,7.91728,10.6333
15.6693,12.1676,10.6
10.8481,10.6852,10.6167
15.0045,9.31483,10.6333
14.7531,11.9849,10.6167
2.36087,10.6726,10.6333
8.28445,12.4564,10.6167
10.4224,11.8554,10.6167
0.497079,13.7953,10.6
0.902002,15.4798,10.6
0.0,11.259,10.6
1.55346,2.33676,23.2167
3.72495,5.60455,23.3
1.69622,2.83653,23.2
3.00954,3.10082,23.3
2.4987,3.58352,23.3167
0.393856,2.95631,23.2
3.53716,1.83279,23.3167
0.0,1.28092,23.4833
0.0,1.18765,23.5
0.0,2.14566,23.4833
0.0,2.38,23.5
0.0197979,2.66555,23.5167
0.0,2.7881,23.4833
0.0,3.93906,23.5
0.187,4.36582,23.5167
0.207686,3.04644,23.5333
0.0,4.98282,23.5
0.0,5.14585,23.5167
0.124497,3.22821,23.5333
0.0,5.1837,23.5
0.0,5.59646,23.5167
0.683553,3.19445,23.5333
0.0,6.30922,23.5167
0.928876,3.58241,23.5333
4.79892,2.11723,23.55
0.0874988,6.67886,23.5167
1.23655,4.18102,23.5333
1.68762,2.31725,23.55
0.0,6.30332,23.5167
0.263746,3.75168,23.5333
3.67878,2.06781,23.55
1.0158,3.07002,23.5333
2.88811,1.93471,23.55
0.0222074,2.95878,23.5333
0.307747,2.10177,23.55
0.0,2.1763,23.5333
0.0318574,1.89149,23.55
0.843164,1.7872,23.5667
0.371006,2.02748,23.55
0.59661,2.00577,23.5667
5.29903,3.02492,23.55
0.134069,2.25916,23.5667
0.0116847,2.27954,23.5667
0.0,1.22902,23.5833
0.025707,1.85855,23.5667
0.465366,0.894279,23.5833
0.0,1.14247,23.6167
0.0950936,0.826232,23.6
0.946462,5.547,22.0833
0.0,6.43162,22.1333
0.0138309,6.80208,22.15
0.0544797,5.28658,22.15
0.0,1.18066,23.3
0.0,3.33022,23.3167
0.0158075,2.00004,23.3333
0.0,7.10395,23.3167
0.0568974,4.11575,23.3333
1.54402,4.55928,23.3333
0.223555,4.29751,23.3333
0.287619,1.30858,23.7
6.77354,8.92874,9.85
1.07086,10.2126,9.85
1.24214,11.8621,9.86667
2.79667,10.3974,9.86667
0.813181,5.3819,9.53333
2.04239,9.03157,9.51667
1.26891,4.842,9.53333
5.84736,8.33179,9.5
4.11492,8.33537,9.51667
0.429645,4.97509,9.53333
0.370257,6.96819,9.5
1.19922,6.18862,9.51667
3.00846,5.60692,9.4
0.153327,4.20566,9.4
0.659878,5.08319,10.4333
1.78308,3.83026,10.4167
1.66442,4.94335,10.4333
1.0075,4.83667,10.45
0.884555,3.86201,10.4667
1.322,6.13025,10.4167
3.31489,5.27955,10.4333
5.74836,5.13494,10.45
2.55642,7.002,10.4167
3.21581,7.11668,10.4333
5.58914,4.55345,10.45
3.83831,8.29312,10.4167
7.81148,6.50083,10.4333
20.1637,3.1285,10.45
15.0059,9.28156,10.4
4.57371,12.7239,10.4167
3.67603,7.73927,10.4167
6.20464,5.97066,10.4333
2.71673,2.83925,10.4167
0.962292,2.87838,22.8667
0.845635,2.60639,22.85
2.84707,4.50827,22.8667
1.0724,3.852,22.8833
9.41776,6.63495,22.8333
5.91816,4.09842,22.85
9.89398,3.94757,22.8667
5.70322,3.43762,22.8833
19.8284,16.8412,22.8333
12.4046,7.88589,22.85
0.0,1.90544,22.9667
0.346047,2.41112,22.9833
2.61355,3.20392,23.0
6.23039,1.37248,23.0167
4.25327,4.57438,22.9667
5.59096,5.16028,22.9833
3.69044,5.64729,23.0
2.13923,1.28677,23.0167
8.36215,13.4667,22.9667
2.06879,9.41924,22.9833
2.97426,3.87871,23.0
0.762053,11.9157,22.9667
2.89518,6.74061,22.9833
3.43815,1.42376,23.0
2.19924,2.3637,23.0333
0.291256,5.31727,22.9667
0.762182,3.67918,22.9833
0.121177,2.46379,22.9667
0.0342194,1.15533,22.9833
0.86814,7.35771,23.15
0.0,5.41273,22.2667
0.0,5.85599,22.2833
1.96743,6.5448,22.2667
0.249572,4.75329,22.2833
0.438589,4.13633,22.3
3.96451,5.92592,22.3667
7.00927,8.6182,22.3667
3.76134,6.53995,22.35
5.016,9.678,22.3667
2.28187,11.2877,22.3833
1.4123,6.14574,22.35
3.29335,8.63821,22.3667
2.79181,11.8359,22.3833
0.968245,5.9309,22.25
0.0,6.65712,22.2667
2.30901,5.82205,22.3667
2.67826,8.62376,22.3833
1.06943,8.16478,22.25
0.758811,9.81354,22.2667
0.504666,7.84589,22.2833
2.72455,3.37815,22.35
3.50889,5.37882,22.3667
4.18412,8.36759,22.3833
5.45117,10.428,22.4
2.76494,4.93126,22.2333
6.35575,7.85346,22.25
7.79257,9.3287,22.2667
6.46508,11.3667,22.2833
10.102,4.53285,22.3
1.2038,2.37361,22.35
2.52246,5.46239,22.3667
5.16772,5.708,22.3833
6.76893,8.64687,22.4
7.90898,8.99402,22.25
8.78997,9.64762,22.2667
8.26024,12.3615,22.2833
1.71089,5.40078,22.3833
2.79683,13.8133,22.4
7.52804,8.65775,22.25
4.7421,10.4289,22.2667
12.981,11.75,22.2833
10.5624,4.11664,22.3
0.369194,4.93553,22.35
0.313988,5.32763,22.3667
10.2504,7.03868,22.3833
13.4316,6.49129,22.4
3.3496,9.4536,22.25
3.87954,11.9124,22.2667
24.7454,12.0638,22.2833
13.2128,4.33707,22.3
1.75828,4.8751,22.3167
0.633996,6.54711,22.3333
1.07426,8.21545,22.35
2.57987,8.32225,22.3667
9.50654,7.33978,22.3833
2.53271,5.52366,22.4
2.65009,7.12686,22.25
8.55168,10.5633,22.2667
12.1759,16.3369,22.2833
27.2051,11.0694,22.3
11.6914,9.57916,22.3333
3.66175,10.6793,22.35
5.555,12.3996,22.3667
3.86387,11.9888,22.3833
0.403824,5.38741,22.4
5.97295,6.73389,22.2667
20.1834,13.4199,22.2833
13.4554,13.9339,22.3
0.371869,16.3351,22.3167
1.24553,8.97172,22.3333
0.605171,9.01166,22.35
2.64369,10.4113,22.3667
0.886559,11.3294,22.3833
0.823367,9.02929,22.4
21.2523,6.53286,22.2667
4.20099,13.0026,22.2833
2.52031,7.86076,22.3167
1.03909,6.66606,22.3333
0.330351,7.75419,22.35
2.12647,8.0744,22.3667
0.498913,13.9952,22.3833
1.41885,10.2813,22.4
3.81938,6.14612,22.4167
0.222938,7.57148,22.2667
10.3543,14.3736,22.4
0.345704,7.5627,22.4167
4.66731,6.67557,22.4167
2.77003,6.06082,10.4
3.53857,7.97941,10.2167
1.01493,7.01907,10.2333
4.21423,10.6091,10.2
5.12223,11.1477,10.2167
2.57178,8.11843,10.2333
2.14048,8.52915,10.25
5.45534,11.622,10.2
2.49065,11.9997,10.2167
1.09412,7.60018,10.2333
2.10997,9.78713,10.25
7.49971,2.21575,10.2833
8.60019,3.54771,10.2833
11.9843,8.00595,10.25
17.1032,3.81093,10.0833
14.532,4.4226,10.0833
14.5463,3.9015,10.1167
4.14195,4.36267,10.25
15.6954,7.15389,10.0833
4.33413,4.27798,10.2333
1.80519,5.56722,10.25
8.80224,2.83069,10.1333
11.0282,8.71667,10.2333
2.37164,7.74552,10.2
6.84999,7.58061,10.2333
1.89041,13.5847,10.15
11.0245,9.2373,10.1667
2.80791,9.96301,10.2167
1.24495,8.15625,10.1667
9.44785,8.96792,10.2
1.63436,11.0655,10.2167
10.5226,14.4619,9.96667
9.86226,15.8465,9.98333
0.64678,10.8855,9.96667
4.73341,6.24178,10.0
0.440479,2.64082,22.3333
2.84832,2.53852,22.35
2.6248,5.36021,22.3833
1.6506,4.53766,22.4
1.10161,3.60267,22.3333
8.79197,4.49681,22.3667
1.51621,7.64464,22.3833
0.141159,16.411,22.2667
0.0766197,12.2272,22.25
2.93803,19.957,22.2667
19.8337,21.2668,22.2833
0.0,10.3583,22.25
0.288424,13.322,22.2667
5.19326,17.5966,22.2833
0.0084674,9.195,22.25
0.0705039,8.47215,22.2667
1.28309,9.25789,22.2833
0.10191,6.62787,22.25
2.81915,12.1322,22.2667
1.16791,4.94688,22.45
3.41002,5.1789,22.45
2.40458,2.65028,22.5833
2.04099,6.5257,9.25
3.33801,5.14325,9.33334
4.40879,4.34422,9.35
0.47844,5.77804,9.33334
4.70004,5.4238,9.31667
0.224289,2.03119,21.5667
0.18566,1.79368,21.5833
2.58871,1.14697,21.5667
3.36706,0.391211,21.5833
6.94935,0.159008,21.6
0.547457,2.04239,21.5333
9.55137,3.355,21.55
23.0429,2.83712,21.5667
10.779,1.95519,21.5833
5.61838,0.856677,21.6
7.81501,0.774212,21.6167
11.8328,4.18973,21.5333
18.9589,3.70991,21.55
25.1981,2.81505,21.5667
3.57206,2.47303,21.5833
4.23652,1.89201,21.6
5.64056,1.77576,21.6167
3.55966,0.765249,21.6333
17.2901,4.7082,21.5333
18.863,3.34807,21.55
13.9209,2.44796,21.5667
3.63974,1.16479,21.5833
18.6628,2.14901,21.6
12.1569,3.52548,21.6167
7.82277,1.34796,21.6333
2.6311,0.671999,21.65
7.0425,9.09321,21.4833
12.1922,9.55637,21.5
11.5572,5.65472,21.5167
7.86116,3.10358,21.5333
3.94574,2.04728,21.55
2.22129,1.60427,21.5667
31.9712,1.32097,21.5833
10.1895,1.93226,21.6
3.88426,3.35408,21.6167
1.39448,1.73321,21.6333
0.0,0.902227,21.65
17.9807,6.72623,21.5
5.74013,1.98861,21.5333
2.52037,1.87057,21.55
3.33124,1.24875,21.5667
19.9691,2.0572,21.5833
3.82936,2.41225,21.6
0.978846,2.00522,21.6167
0.161683,2.18321,21.6333
0.138395,1.75119,21.65
20.2322,3.46081,21.5
4.12646,1.39845,21.5333
1.68388,1.91846,21.55
2.75708,2.11641,21.5667
3.34663,2.6955,21.5833
0.474371,2.97724,21.6
0.684571,2.82723,21.6167
0.859421,2.96098,21.6333
0.943571,2.71171,21.65
0.141092,2.398,21.6667
0.94618,3.82357,21.5
2.10305,3.05641,21.55
2.73652,3.20226,21.5667
2.69628,4.66222,21.5833
1.75251,4.54493,21.6
1.33563,4.23546,21.6167
2.18584,3.83545,21.6333
1.4026,3.56826,21.65
0.600066,2.78798,21.6667
2.53515,3.62476,21.55
2.86875,3.56071,21.5667
3.48665,4.57112,21.5833
4.81258,5.34855,21.6
3.66354,5.22594,21.6167
2.11044,4.59718,21.6333
1.08965,3.81744,21.65
0.691463,3.44067,21.6667
1.62293,3.3903,21.5333
3.48065,4.01747,21.55
4.27642,3.76349,21.5667
5.82407,4.83415,21.5833
4.55981,5.57374,21.6
4.27471,6.5242,21.6167
1.98054,6.04496,21.6333
1.76174,5.33259,21.65
0.324874,4.82037,21.6667
0.244173,3.92489,21.6833
3.14699,3.49829,21.55
5.9756,3.31905,21.5667
5.66149,5.04849,21.5833
4.83552,8.08925,21.6
4.09334,7.93929,21.6167
3.23623,8.15281,21.6333
2.27441,8.43862,21.65
0.68441,7.00864,21.6667
0.404906,6.10037,21.6833
2.69571,3.45447,21.55
6.38431,4.41183,21.5667
5.75754,8.04841,21.5833
4.77218,9.93986,21.6
4.66769,9.3996,21.6167
3.1034,8.91604,21.6333
1.98072,9.25269,21.65
2.46034,7.92269,21.6667
6.69239,7.23937,21.6833
3.50899,4.29587,21.5667
9.91585,10.1095,21.5833
5.88675,10.9205,21.6
3.47473,10.2628,21.6167
2.78517,10.6815,21.6333
0.882916,10.1778,21.65
1.39998,8.61722,21.6667
1.98159,6.324,21.6833
3.19164,2.94032,21.7
1.34108,1.19029,21.5667
7.01238,6.58669,21.5833
4.75384,10.4403,21.6
3.70048,8.54029,21.6167
4.30784,9.54118,21.6333
4.67722,10.2244,21.65
8.87789,8.38624,21.6667
5.26676,6.84655,21.6833
0.555506,3.57317,21.7
6.77844,11.8462,21.6
17.9342,9.77442,21.6167
6.32882,5.46016,21.6333
10.3785,8.26841,21.65
6.49549,9.1956,21.6667
5.55263,7.44959,21.6833
3.893,3.69506,21.7
1.99596,12.0389,21.6
5.33624,11.2147,21.6167
5.15978,5.49236,21.6333
3.9514,9.2111,21.65
4.47396,7.22976,21.6667
1.84694,3.88487,21.6833
3.72887,2.83003,21.7
2.78047,11.8646,21.6
4.3713,11.754,21.6167
4.80864,10.2612,21.6333
3.96349,10.5658,21.65
2.78498,7.01213,21.6667
2.84859,4.74382,21.6833
11.7684,3.66952,21.7
3.47243,4.92034,21.7167
2.34232,9.39416,21.6
4.0728,9.62013,21.6167
12.7302,8.86721,21.6333
2.73055,6.88861,21.65
3.1903,5.97212,21.6667
2.26515,4.56938,21.6833
2.37621,4.39024,21.7
5.65847,3.94081,21.7167
6.3753,1.63759,21.7333
0.829342,6.46253,21.6167
9.98453,6.44599,21.6333
8.50498,4.79888,21.65
4.68995,6.80088,21.6667
1.30022,5.16836,21.6833
0.119721,4.53549,21.7
0.0181936,2.64607,21.7167
2.09244,3.39029,21.6167
14.1593,2.35939,21.6333
1.09813,6.999,21.6667
0.312201,5.08796,21.6833
0.0598389,3.92547,21.7
20.2853,2.76914,21.6333
0.627119,0.862175,21.7333
0.0,0.674212,21.75
1.96437,1.17653,21.7167
0.910868,0.898548,21.7333
0.144401,0.542294,21.75
0.0229278,4.77846,22.1
0.0,2.63189,22.1167
0.0,0.793424,22.1333
0.0,4.15104,22.0833
0.0,4.7036,22.1
0.0,5.0235,22.1167
0.121805,3.86986,22.1333
0.229575,3.9019,22.0833
0.206259,4.00871,22.1
0.0796175,5.22326,22.1167
0.16489,6.48149,22.1333
0.286852,3.07943,22.15
0.141687,2.75698,22.05
0.352366,4.70383,22.0667
1.35845,5.43394,22.0833
0.953018,2.92546,22.1
3.14339,3.08812,22.1167
3.89735,6.61794,22.1333
2.68932,4.70245,22.15
0.046341,2.35003,22.0333
0.0,3.44798,22.05
0.123658,4.25754,22.0667
0.478131,5.55178,22.0833
2.14676,7.3203,22.1
2.31075,3.59351,22.1167
6.32201,3.32119,22.1333
5.35367,4.66094,22.15
3.37809,2.56618,22.1667
0.00510802,3.27965,22.05
0.863928,4.46413,22.0667
2.82108,5.95675,22.0833
5.572,10.0285,22.1
8.67212,13.1408,22.1167
7.59965,9.25209,22.1333
1.13003,6.21004,22.15
0.118853,4.06693,22.1667
0.834452,3.37208,22.05
0.762035,4.53573,22.0667
2.2423,4.47332,22.0833
6.6002,8.22769,22.1
7.76594,13.5037,22.1167
25.5257,13.9197,22.1333
37.8195,11.3659,22.15
1.52937,7.79612,22.1667
0.493673,5.70762,22.05
0.928618,6.70625,22.0667
3.72337,10.3839,22.0833
8.53904,11.7015,22.1
5.41731,12.7401,22.1167
24.2356,12.9535,22.1333
22.7741,11.3201,22.15
7.75959,8.67086,22.1667
5.59393,3.64233,22.1833
0.907732,3.65206,22.0333
1.28938,5.9018,22.05
2.27251,6.4314,22.0667
3.78128,9.63515,22.0833
10.4254,13.4023,22.1
8.08956,11.5718,22.1167
18.3084,8.70775,22.1333
7.71118,8.34692,22.15
9.30615,8.09537,22.1667
0.640186,7.1046,22.1833
1.63997,6.11455,22.0333
1.4143,5.78724,22.05
1.82249,4.38865,22.0667
2.3205,6.84207,22.0833
4.45003,10.0951,22.1
4.57747,10.9575,22.1167
13.4208,5.54891,22.1333
6.82971,4.65872,22.15
3.16263,5.22232,22.1667
0.638216,4.66089,22.1833
1.13162,5.25622,22.0167
2.667,5.99079,22.0333
1.92952,10.0786,22.05
3.69226,4.68478,22.0667
6.54742,5.85111,22.0833
3.98492,10.1232,22.1
3.62283,13.037,22.1167
5.79953,13.0333,22.1333
6.79717,6.11223,22.15
5.21875,3.07066,22.1667
1.25378,13.5455,22.0333
0.971453,10.5727,22.05
3.94142,5.21956,22.0667
5.37867,5.21728,22.0833
4.68635,10.3004,22.1
10.1143,13.6354,22.1167
2.41697,12.3377,22.1333
1.33355,14.7667,22.15
0.19367,7.89545,22.1667
1.20737,9.8942,22.0333
0.0425134,7.50328,22.05
0.458101,6.68559,22.0667
3.35946,5.30456,22.0833
4.17606,10.3516,22.1
9.63171,13.7027,22.1167
3.51564,7.78524,22.1333
1.07269,11.728,22.15
1.77731,5.92201,22.0333
0.0,5.05017,22.05
0.0,5.52203,22.0667
0.223657,3.87795,22.0833
1.7966,7.028,22.1
0.824662,8.76312,22.1167
3.04126,4.38089,22.1333
0.0,3.36835,22.05
0.0,2.34671,22.0667
5.78868,6.70634,9.31667
4.85115,2.46971,9.3
4.19868,2.27927,9.3
12.5893,1.86275,9.21667
22.2143,7.78938,9.15
6.11072,3.10639,9.11667
3.32383,8.94504,9.08333
6.09971,5.5705,9.1
16.111,8.37393,9.05
2.74844,7.89355,9.08333
23.1127,7.77859,9.05
3.45096,5.61151,9.06667
2.97828,5.50111,9.08333
9.21417,5.5734,9.05
3.80359,3.26452,9.06667
0.0,4.44458,21.5333
0.00525174,5.69034,21.55
0.0,2.67463,21.6667
0.414101,3.711,21.5333
0.464091,5.75417,21.55
0.00863776,3.71443,21.5667
0.212834,5.86841,21.55
0.254756,4.81197,21.5667
1.81094,3.52108,21.5833
4.0779,5.85055,21.55
0.972793,5.68996,21.5667
0.157187,3.45298,21.5833
0.263713,5.94493,21.65
0.0211156,5.63282,21.6667
0.382481,2.44832,21.6833
0.810936,2.33235,21.5333
2.75334,5.2335,21.5667
0.152331,6.73668,21.6667
0.0513176,4.08596,21.6167
0.14459,4.1396,21.6333
0.0,3.10754,21.7333
0.0,2.58048,21.75
0.0,2.92749,21.85
0.0151836,3.11403,21.75
0.219712,3.08436,21.7667
0.0,5.40876,21.7833
0.0,4.79727,21.8
0.00833534,3.52688,21.8167
0.0,3.4334,21.8333
0.0,3.00051,21.85
0.723974,5.33424,21.7
0.117163,3.286,21.75
0.00791473,4.45478,21.7667
0.0,6.42739,21.7833
0.0,6.77549,21.8
0.0,4.78438,21.8167
0.227035,5.5847,21.8333
0.911038,3.73933,21.85
0.0,5.15969,21.6833
1.04247,8.69536,21.7
1.82709,11.4132,21.7167
0.19892,7.61241,21.7333
0.732793,4.98146,21.75
0.227852,5.15407,21.7667
0.00908469,7.1248,21.7833
0.0920266,7.3715,21.8
0.0333484,5.07953,21.8167
1.52144,4.56156,21.8333
7.60004,3.32994,21.85
2.5945,2.01307,21.8667
1.35965,13.6122,21.7
1.30424,16.8152,21.7167
3.62571,14.5289,21.7333
1.81691,9.66006,21.75
1.01121,4.44432,21.7667
2.94459,7.29939,21.7833
0.236494,8.42144,21.8
0.0767927,5.60895,21.8167
1.79981,5.12874,21.8333
5.27556,4.31582,21.85
1.8851,1.53855,21.8667
4.60793,17.6571,21.7
8.13477,17.3917,21.7167
5.53826,16.4275,21.7333
5.52639,16.3598,21.75
2.45861,4.87278,21.7667
1.87653,6.30709,21.7833
1.45527,7.55914,21.8
1.45923,6.81538,21.8167
2.84493,6.35388,21.8333
15.8839,4.12926,21.85
2.70522,0.892995,21.8667
4.9758,16.746,21.7167
6.02676,16.8698,21.7333
24.523,17.7084,21.75
9.10942,8.45565,21.7667
2.69656,5.03367,21.7833
1.98664,5.97467,21.8
7.43974,5.51632,21.8167
9.6892,5.62047,21.8333
9.67071,2.77105,21.85
1.46488,0.518533,21.8667
4.04302,17.281,21.7167
4.81051,16.93,21.7333
27.7543,17.894,21.75
10.2991,12.7305,21.7667
3.09163,4.67755,21.7833
2.98492,3.44783,21.8
6.25337,3.32414,21.8167
3.91628,2.1986,21.8333
4.54162,1.98157,21.85
3.04662,15.6583,21.7167
3.08168,17.6791,21.7333
23.3901,16.942,21.75
8.46595,16.1963,21.7667
4.0867,4.0429,21.7833
4.51625,1.60322,21.8
4.20489,2.50849,21.8167
3.36949,1.61901,21.8333
2.58571,1.5731,21.85
7.75065,14.9692,21.7333
37.957,16.0307,21.75
34.6119,19.1636,21.7667
4.38736,4.20446,21.7833
6.881,1.14624,21.8167
7.88066,7.30031,21.7333
12.7833,7.83993,21.75
2.02545,2.92899,21.7333
2.65267,2.49444,21.2167
1.02963,2.69871,21.2333
0.0547521,1.86043,21.1833
0.81764,1.9047,21.2
2.01773,2.73853,21.2167
2.01772,2.68077,21.2333
1.65962,4.17417,21.2333
2.99164,4.99026,21.25
2.32315,3.74224,21.2667
0.0391567,1.76195,21.1667
0.589768,2.45919,21.1833
2.14099,2.92241,21.2
4.08832,4.50889,21.2167
2.62325,4.53599,21.2333
1.28639,4.50303,21.25
1.33947,5.87634,21.2667
0.0504029,2.40353,21.1667
0.178634,3.85414,21.1833
3.13565,5.10885,21.2
5.47648,6.99961,21.2167
6.91453,6.07024,21.2333
5.76816,5.20745,21.25
4.42211,6.36952,21.2667
0.0,2.0675,21.1667
0.0131301,4.93058,21.1833
0.839046,6.00224,21.2
3.07579,8.66105,21.2167
6.30585,8.15655,21.2333
6.52091,5.6505,21.25
5.14245,6.50748,21.2667
3.21145,8.69415,21.2833
0.0,1.98292,21.1667
0.0212127,3.92771,21.1833
1.50554,6.17768,21.2
4.19632,7.14831,21.2167
5.79353,7.11348,21.2333
8.52434,5.9272,21.25
4.75585,8.85184,21.2667
2.59357,11.1776,21.2833
0.646747,4.16842,21.1833
4.43753,3.70987,21.2
3.26021,5.52192,21.2167
9.03119,7.30407,21.2333
18.2696,6.84633,21.25
6.52172,8.51683,21.2667
3.4973,7.55337,21.2833
16.8023,2.75418,21.2333
37.0452,3.79312,21.25
36.96,9.72776,21.2667
24.6655,7.51801,21.2833
21.9497,5.95981,21.3
44.3685,6.9853,21.2833
37.8379,9.33847,21.3
3.12881,2.61719,21.15
5.99614,3.99889,21.1833
6.9895,6.69884,21.1833
4.20357,4.7246,21.3
11.4262,6.53349,21.3167
4.99508,6.88462,21.1667
6.85607,5.41315,21.1833
0.440232,8.52681,21.3
1.20361,8.86459,21.3167
0.481541,10.2063,21.3
1.46149,9.50095,21.3167
5.67605,10.3387,21.3
0.543212,10.0299,21.3167
2.97988,12.4353,21.3333
16.1304,10.6208,21.3167
15.6954,12.5655,21.3333
2.60525,10.9943,21.3167
2.90341,12.3987,21.3333
0.127856,9.37141,21.3167
0.299528,10.46,21.3333
0.0536518,9.56545,21.35
1.1057,2.74217,21.4
1.34906,4.07119,21.4167
3.07745,5.20412,21.5667
2.11953,2.14433,21.5833
0.104079,8.97477,21.5833
0.0557524,5.25563,21.6
1.04253,4.35358,21.6
0.179263,0.535314,21.8667
0.0,1.1985,21.8167
0.693706,1.36144,21.8833
0.499212,2.89526,21.8833
0.184651,6.2691,21.9
2.07656,2.9335,21.9167
0.353649,21.3665,21.9667
0.0362233,19.0858,21.9667
0.0,18.9166,21.95
0.401725,6.47101,21.3833
0.580139,5.26391,21.4
0.0,3.92872,21.3667
0.158712,6.13449,21.3833
1.16114,5.8805,21.4
0.83507,2.69397,21.4167
4.76661,3.91548,21.3333
0.31955,3.15831,21.35
0.0,6.96099,21.3667
0.0154217,8.34335,21.3833
0.860062,6.5345,21.4
0.196145,2.93988,21.4167
2.87601,3.95951,21.35
0.0,5.28462,21.3667
0.0112368,6.42123,21.3833
0.410336,6.75818,21.4
0.587017,4.45562,21.4167
14.1294,4.50831,21.35
1.44976,4.78057,21.3667
0.0,6.70486,21.3833
0.0421712,6.83363,21.4
1.09235,6.92366,21.4167
2.28393,4.83876,21.4333
9.84092,4.08601,21.3667
0.0,6.16905,21.3833
0.14565,8.35055,21.4
4.09366,7.73875,21.4167
1.52772,6.39404,21.4333
35.7209,4.18283,21.3667
1.83726,4.94468,21.3833
1.72539,7.05423,21.4
4.87973,8.16602,21.4167
0.818389,6.99849,21.4333
6.7153,4.09404,21.3833
9.25566,5.12193,21.4
1.05998,7.18181,21.4167
1.38512,5.41874,21.4333
2.44043,3.56157,21.45
2.42799,6.3683,21.4167
2.13465,4.60604,21.4333
5.2843,3.58776,21.4333
0.694588,5.08758,21.4667
0.300016,2.45706,21.55
1.62127,5.11393,21.55
3.50393,4.49701,21.55
0.0254854,5.30497,21.4833
0.536926,4.90894,21.55
0.428107,7.41583,21.4833
0.033814,3.20205,21.5
13.5267,12.4836,21.4667
0.312092,7.70329,21.4833
0.0,4.97809,21.5
0.432925,5.47276,21.4833
0.328402,4.64054,21.5
5.313,7.14614,21.55
0.652226,9.85123,21.55
0.224728,7.60672,22.2833
1.02819,5.81483,22.3
0.188675,3.15865,22.2833
1.17805,4.30713,22.3
10.1611,6.1827,22.3167
0.0263675,2.44172,20.7333
0.14697,3.11996,20.75
0.0879237,3.54096,20.7667
0.068985,4.03147,20.7833
0.377689,3.99373,20.8
0.0844377,4.25796,20.8333
0.0,3.41914,20.85
0.120256,4.13872,20.75
0.0953234,4.93072,20.7667
0.0810188,5.59566,20.7833
0.218391,5.67145,20.8
0.321765,5.6732,20.8167
0.118368,4.23702,20.85
0.0144027,4.33781,20.8667
0.363592,4.33105,20.75
0.588808,5.38,20.7667
0.501325,6.49827,20.7833
0.190003,6.6053,20.8
0.343994,5.77122,20.8167
0.689887,5.65568,20.8333
0.812544,4.78495,20.85
0.279468,3.82073,20.8667
0.156237,3.71028,20.75
0.844603,4.63303,20.7667
0.608719,5.52932,20.7833
0.906611,6.14801,20.8
0.59464,6.5088,20.8167
0.376491,6.09807,20.8333
1.58023,5.58302,20.85
1.87234,4.57379,20.8667
0.834015,4.16874,20.8833
0.393147,2.69,20.7333
0.438174,3.83419,20.75
1.97805,4.90776,20.7667
2.97559,5.37726,20.7833
2.4153,6.3288,20.8
3.0003,6.42854,20.8167
2.32703,5.71225,20.8333
1.14003,5.64428,20.85
1.94603,5.04324,20.8667
1.48554,4.79447,20.8833
1.0829,3.49298,20.7333
1.24378,4.60452,20.75
5.10152,4.90474,20.7667
7.70306,4.9715,20.7833
5.18506,5.73573,20.8
5.01969,6.12427,20.8167
4.42226,5.61398,20.8333
3.01644,5.7615,20.85
2.0133,5.03599,20.8667
3.35852,4.35704,20.8833
0.517237,4.94246,20.7333
1.7283,6.29124,20.75
2.06487,5.65222,20.7667
3.93623,6.05415,20.7833
4.86505,6.294,20.8
5.49864,6.55218,20.8167
3.91769,6.48144,20.8333
7.34983,6.00745,20.85
6.44518,5.38595,20.8667
4.74879,4.64617,20.8833
2.77305,3.95602,20.9
2.45158,4.97574,20.7333
4.37079,6.27806,20.75
8.42277,7.58643,20.7667
7.61876,9.29751,20.7833
7.77424,9.0203,20.8
24.941,8.02083,20.8167
6.40011,6.68257,20.8333
8.78107,6.6341,20.85
9.87601,6.58261,20.8667
8.69718,7.04633,20.8833
4.85687,5.88955,20.9
5.66365,6.29021,20.75
10.7998,8.96545,20.7667
13.9855,10.1996,20.7833
11.9042,11.4483,20.8
27.7429,11.3331,20.8167
12.6551,10.5172,20.8333
10.7938,9.82357,20.85
7.53698,8.96808,20.8667
6.39301,9.65784,20.8833
4.97888,7.98434,20.9
2.97108,6.00852,20.75
3.88672,8.14598,20.7667
7.48305,10.9892,20.7833
3.53682,13.2767,20.8
25.6286,14.213,20.8167
30.0823,13.47,20.8333
15.7175,12.4285,20.85
4.54979,11.8886,20.9
3.12216,9.83387,20.9167
0.0670862,6.79731,20.75
1.0244,9.42111,20.7667
1.17833,12.0333,20.7833
3.30903,13.206,20.8
8.62981,14.5076,20.8167
30.7475,13.6175,20.8333
29.6368,12.7245,20.85
40.5731,12.7,20.8667
14.198,12.2273,20.8833
8.41412,12.5308,20.9
2.34466,11.3822,20.9167
0.0778781,8.27794,20.75
0.0736249,11.1062,20.7667
2.99964,12.1923,20.7833
9.65515,13.1827,20.8
33.3953,13.9813,20.8167
47.4909,13.2575,20.8333
49.3872,12.52,20.85
44.521,12.0181,20.8667
28.1838,11.4611,20.8833
25.3733,11.4032,20.9
5.20233,12.209,20.9167
0.150774,12.2614,20.7667
3.27855,14.511,20.7833
46.9376,12.8177,20.8
34.9241,10.1707,20.8167
12.1848,8.93415,20.8333
7.54414,8.30453,20.85
38.019,8.46025,20.8667
26.4763,8.70891,20.8833
31.6515,9.7591,20.9
15.7727,11.4451,20.9167
1.31047,11.3971,20.7667
23.2989,12.9003,20.7833
30.8955,8.3021,20.8
2.39071,6.52004,20.8167
1.03937,7.00994,20.8333
1.44076,7.35239,20.85
1.18077,7.25865,20.8667
15.8297,6.71647,20.8833
18.1077,8.2116,20.9
29.6336,10.5793,20.9167
2.42158,12.1443,20.9333
15.985,10.8408,20.7667
32.6636,9.9351,20.7833
8.46504,6.76649,20.8
0.246175,6.62596,20.8167
0.305791,7.48943,20.8333
1.0047,8.28346,20.85
0.92725,7.92206,20.8667
2.98398,6.16625,20.8833
18.1919,6.97176,20.9
27.2665,8.89997,20.9167
4.40725,11.1924,20.9333
15.6096,10.3012,20.7833
1.45881,8.03619,20.8
0.599732,7.18049,20.8167
0.138679,8.05897,20.8333
0.12779,8.33029,20.85
0.0658809,7.26834,20.8667
1.24243,7.01764,20.8833
4.00196,8.78452,20.9
26.1955,9.84745,20.9167
5.76629,11.3202,20.9333
4.18552,12.3025,20.95
11.2268,9.75723,20.7833
0.149344,8.29829,20.8
0.647799,8.71122,20.8167
1.13302,9.18823,20.8333
0.0994054,9.21317,20.85
0.0552283,8.48447,20.8667
3.51512,9.34957,20.8833
23.82,10.3525,20.9
31.5031,11.5582,20.9167
4.19878,11.9725,20.9333
4.01971,12.3508,20.95
0.67429,9.02305,20.8167
0.282844,8.80613,20.8333
0.107321,8.3027,20.85
0.357862,9.47774,20.8667
6.11377,10.9234,20.8833
44.974,11.4366,20.9
28.4286,11.9727,20.9167
4.41956,12.3499,20.9333
4.37322,11.9861,20.95
0.755456,8.95518,20.8
0.340069,9.24313,20.8167
2.35508,8.3994,20.8333
8.63436,9.05339,20.85
9.92829,11.8602,20.8667
56.9697,12.7062,20.8833
44.4897,13.1973,20.9
7.06904,13.3833,20.9167
4.63689,12.8631,20.9333
3.70501,11.2392,20.95
3.1014,9.4353,20.9667
0.603086,9.35751,20.8167
2.00902,8.96228,20.8333
31.4253,9.71733,20.85
24.7262,12.365,20.8667
24.7211,14.0062,20.8833
6.38027,14.195,20.9
1.79691,14.155,20.9167
1.84654,12.8646,20.9333
3.52927,11.0582,20.95
2.45567,9.53908,20.9667
1.4373,7.6741,20.8167
2.65124,8.04204,20.8333
2.99368,8.92645,20.85
1.1283,10.8564,20.8667
0.467791,12.6376,20.8833
1.06864,12.3576,20.9
0.635621,11.6082,20.9167
0.762934,10.5789,20.9333
0.831957,9.25136,20.95
1.59139,8.55703,20.9667
0.78061,7.4875,20.9833
0.904752,7.40066,20.8333
3.47444,9.23251,20.85
0.834739,10.626,20.8667
0.496896,12.0778,20.8833
1.20545,12.2573,20.9
0.147493,10.9298,20.9167
0.312388,9.99017,20.9333
0.58434,9.98244,20.95
1.06524,9.22168,20.9667
1.70117,7.86967,20.9833
1.02226,9.23703,20.85
1.76242,10.71,20.8667
0.29229,11.4159,20.8833
1.28513,11.3638,20.9
0.798334,10.3842,20.9167
0.135565,9.27572,20.9333
0.302428,9.1636,20.95
1.1124,8.15634,20.9667
0.936598,7.37882,20.9833
0.251521,8.57827,20.8667
0.203982,9.67669,20.8833
0.309264,9.42092,20.9
0.564038,9.65913,20.9167
0.453872,8.28231,20.9333
1.22001,7.44395,20.95
0.670575,6.96518,20.9667
0.0402092,6.37414,20.9833
0.0,4.81287,21.0
0.0,8.16563,20.9167
0.100406,7.57651,20.9333
0.0,6.34387,20.95
0.0,5.50067,20.9667
0.0,4.64987,20.9833
0.0,3.35459,21.0
1.2516,9.77737,21.75
0.740532,6.28419,21.7333
1.5121,7.79145,21.75
0.36326,5.15841,21.7333
3.15524,8.17585,21.75
9.67978,5.98385,21.7667
1.64382,6.16321,21.75
1.15492,3.71983,21.7667
2.83887,8.08924,20.45
5.75703,8.64727,20.3333
10.9187,8.62138,20.35
6.66984,7.50701,20.3667
3.22223,7.61188,20.3333
8.93908,8.83463,20.35
2.46242,6.03709,20.3667
1.21721,3.19141,20.3833
4.98203,5.98561,20.35
5.75769,4.47521,20.3667
3.86079,4.18501,20.3833
2.82404,3.60208,20.4
0.858996,2.25852,20.3333
0.321917,8.87048,20.4
1.20891,10.7001,20.4
3.7166,11.9043,20.4
0.962993,5.57688,20.4
4.20168,7.01282,20.4333
1.72338,1.95322,20.45
6.30199,9.45279,20.4
5.73263,7.32884,20.4
0.0,3.17401,20.35
0.0385994,3.55735,20.3667
0.707846,4.97703,20.3833
0.0320189,2.22273,20.3167
0.308679,3.08739,20.3333
0.111716,4.66777,20.35
0.218058,6.25133,20.3667
0.571761,5.48555,20.3833
2.10801,9.43436,20.4
1.77044,3.78542,20.2667
2.21214,2.52942,20.2833
0.0,4.07523,20.3333
1.35596,7.78838,20.3667
0.803112,8.6067,20.3833
1.21076,11.946,20.4
0.0,3.39571,20.25
2.03602,3.54948,20.2667
5.00855,3.94972,20.2833
0.0805039,2.70794,20.3
0.0,5.43254,20.3333
0.604235,8.55652,20.3667
1.93374,9.39761,20.3833
11.2167,11.0731,20.4
0.0,3.12139,20.25
0.0051869,3.58881,20.2667
1.35129,3.96574,20.2833
1.10615,3.72297,20.3
0.029803,3.11225,20.3167
0.0,4.62077,20.3333
0.0,7.09035,20.35
0.162168,8.95551,20.3667
1.06953,9.06619,20.3833
12.8415,9.16053,20.4
3.68628,9.49218,20.4167
0.0183804,2.04101,20.25
0.113421,2.71925,20.2667
0.368301,3.81801,20.2833
2.25105,4.88898,20.3
0.738444,4.7981,20.3167
0.367205,5.16041,20.3333
0.230125,6.24417,20.35
0.0491758,8.6202,20.3667
0.783245,10.0916,20.3833
4.00588,9.61205,20.4
3.97737,10.5344,20.4167
0.450233,1.87747,20.25
0.630299,1.96931,20.2667
1.06508,3.21479,20.2833
1.83766,4.68253,20.3
1.50018,6.31926,20.3167
1.06588,6.16839,20.3333
1.25784,7.10243,20.35
0.882476,9.42778,20.3667
0.896292,11.4209,20.3833
1.81118,11.2249,20.4
9.81857,10.2104,20.4167
0.939567,1.36579,20.2667
0.83167,2.62873,20.2833
1.18811,4.146,20.3
3.13102,6.21972,20.3167
2.40837,6.89499,20.3333
2.16246,8.12393,20.35
3.20171,10.0321,20.3667
3.73328,12.5015,20.3833
3.99569,12.6765,20.4
4.80896,12.0217,20.4167
5.78263,10.6811,20.4333
1.09556,4.61998,20.2667
0.987103,2.11149,20.2833
0.557049,3.61074,20.3
5.18179,6.53626,20.3167
1.24158,7.14199,20.3333
2.64442,7.8271,20.35
4.20018,10.494,20.3667
5.49819,11.5553,20.3833
4.72919,12.2289,20.4
5.16169,12.1374,20.4167
4.22306,12.6478,20.4333
3.5898,1.23395,20.2833
3.06917,2.2768,20.3
2.84181,5.86155,20.3167
1.91745,7.53807,20.3333
2.01078,7.05957,20.35
1.72514,8.49715,20.3667
3.4853,10.2479,20.3833
5.19993,10.4407,20.4
4.97963,9.27733,20.4167
2.76259,9.67944,20.4333
5.48871,7.15688,20.3333
9.65589,4.803,20.35
5.71743,4.63908,20.3667
4.54906,6.25925,20.3833
3.81514,6.01413,20.4
6.30497,5.9743,20.4167
3.51956,5.91806,20.4333
3.43699,7.33606,20.45
3.78292,2.57926,20.2833
3.45129,1.82671,20.3667
4.00719,1.96243,20.3833
1.22162,2.8619,20.4
1.7039,2.73938,20.4167
2.58342,1.87865,20.4333
0.0,1.68226,20.4667
0.98444,2.74275,20.4667
0.0,3.97715,20.4833
0.477185,3.5502,20.45
0.158331,3.72897,20.4667
0.266111,4.4725,20.4833
0.975062,4.09891,20.4333
2.38098,5.66524,20.45
2.45135,7.55652,20.4833
2.4646,5.75951,20.5
3.89982,5.81388,20.4333
2.33912,9.54948,20.45
16.8972,4.70849,20.4667
13.8306,7.68156,20.4833
25.7964,6.67347,20.5
1.0721,3.95639,20.45
2.12627,4.83689,20.4667
3.07716,7.71528,20.4833
10.161,12.7997,20.5
0.407545,5.17538,20.4333
1.31001,6.48938,20.45
2.76831,7.44762,20.4667
4.01256,7.69389,20.4833
7.98125,7.91062,20.5
4.9807,7.28764,20.5167
0.625826,6.43194,20.4333
7.12043,7.93776,20.45
6.41724,9.04404,20.4667
8.43221,9.22801,20.4833
6.30992,9.15376,20.5
22.8028,8.28475,20.5167
0.237666,5.90515,20.4167
6.11052,7.9012,20.4333
10.7741,9.23895,20.45
17.1193,10.1337,20.4667
5.98958,10.7388,20.4833
10.2264,10.7512,20.5
3.59568,9.67098,20.5167
2.83935,6.68867,20.4167
16.0748,8.85016,20.4333
12.4078,10.1452,20.45
8.82387,11.1154,20.4667
3.83702,11.4189,20.4833
3.35877,10.9027,20.5
2.73262,10.3304,20.5167
4.22917,9.1272,20.5333
5.5304,7.24974,20.4167
5.33046,9.14924,20.4333
3.04424,10.6688,20.45
7.09603,10.9946,20.4667
5.96425,10.3717,20.4833
13.6377,8.56661,20.5
6.9707,8.59017,20.5167
2.3297,8.09105,20.5333
6.28918,9.46567,20.4333
9.86345,10.4835,20.45
6.88404,9.00426,20.4667
19.7896,7.04265,20.4833
19.1641,3.99538,20.5
22.5499,4.72307,20.5167
6.94402,7.27333,20.5333
3.55578,9.17208,20.4333
6.10655,9.8659,20.45
18.5704,6.7924,20.4667
21.4206,3.27596,20.4833
17.3504,8.03726,20.55
7.71015,8.39741,20.4333
5.64514,8.51245,20.45
16.3069,5.02235,20.4667
28.8232,1.08555,20.4833
13.4663,8.59481,20.55
5.33528,7.56753,20.4333
3.42308,8.16245,20.45
10.5429,5.04995,20.4667
11.2142,2.14387,20.4833
20.5985,8.55701,20.5333
9.8884,9.83874,20.55
3.36508,6.39163,20.4333
5.78076,9.42419,20.45
2.62384,7.39457,20.4667
4.33164,5.50946,20.4833
24.4795,5.72182,20.5
24.3988,8.44118,20.5167
13.0384,10.307,20.5333
6.38132,10.3803,20.55
2.44821,8.66517,20.5667
4.41183,8.88567,20.45
2.25847,8.53123,20.4667
0.795846,7.96643,20.4833
5.4143,8.64678,20.5
11.691,9.40896,20.5167
6.99071,9.43504,20.5333
2.93801,8.09076,20.55
1.26669,6.34485,20.5667
2.69402,6.15831,20.45
2.33957,7.9169,20.4667
0.890019,7.85606,20.4833
0.033097,7.53231,20.5
0.409649,7.47317,20.5167
1.5361,6.89114,20.5333
1.33472,5.71415,20.55
2.45627,4.69714,20.5667
0.677545,3.30214,20.5833
2.42636,5.95612,20.4833
0.641674,6.12771,20.5
0.255477,5.65263,20.5167
0.208151,4.99718,20.5333
0.167572,4.06542,20.55
0.617595,3.08266,20.5667
1.08307,1.98309,20.5833
1.39236,3.38039,20.5333
1.35724,2.43436,20.55
0.0,4.11059,6.58333
0.780885,4.98013,6.58333
2.82047,4.31779,6.56667
0.0,7.86751,6.48333
0.0449508,8.69564,6.48333
0.00932364,5.78643,6.5
1.42856,8.5626,6.48333
0.347528,6.03967,6.5
0.658491,5.07813,6.51667
6.09291,11.4146,6.46667
2.0591,8.59118,6.48333
0.699105,6.26853,6.5
8.46651,5.63727,6.51667
5.71944,10.7292,6.46667
2.38538,7.27461,6.48333
7.49321,5.6861,6.51667
4.57012,10.7285,6.45
4.74764,9.05737,6.46667
8.99745,6.53733,6.43333
6.25083,4.90669,6.45
5.58379,10.8165,6.43333
4.56572,6.99053,6.45
2.92324,4.3632,6.46667
4.90191,11.6546,6.41667
7.09206,11.8621,6.43333
4.7264,9.40251,6.45
5.06086,6.92045,6.46667
3.86836,7.60019,6.41667
6.22761,9.89088,6.43333
5.74464,9.20084,6.45
2.2121,6.67405,6.46667
1.69877,5.16753,6.48333
2.50877,4.89577,6.41667
3.26216,8.04981,6.43333
4.50754,7.46165,6.45
5.29654,6.29821,6.46667
4.96915,5.03763,6.48333
4.91772,10.2878,7.13333
11.1972,8.33601,7.13333
0.0435269,6.6108,7.08333
3.17992,5.7786,7.1
6.49598,4.99461,7.11667
4.02214,5.31979,7.01667
0.0604033,8.87068,7.0
0.406595,7.51655,7.01667
6.36652,6.84501,20.2833
0.0137825,3.0125,20.2333
0.0,2.62854,20.2333
0.0,3.80703,20.25
0.0530295,3.46424,20.2667
1.04848,3.8825,20.2833
0.0,2.76285,20.25
0.0,2.11553,20.2667
0.00688258,1.09254,20.2667
1.49862,3.36957,20.4167
1.58938,6.65188,20.4167
3.36222,5.46505,20.4167
13.0232,5.09652,20.4333
8.59751,3.69984,20.4333
5.91207,4.26957,20.4333
7.5721,4.65439,20.4333
3.08491,3.73338,20.45
3.88854,5.07453,20.45
2.30288,3.04402,20.4667
3.55603,5.82254,20.45
3.07863,3.86936,20.4667
2.08544,2.26535,20.4833
0.0,3.82629,20.5667
0.0,4.43369,20.5833
0.0130585,2.8432,20.6
4.19862,7.48374,20.45
4.00494,4.86278,20.4667
2.53294,2.82231,20.4833
3.05071,2.03305,20.5
4.28529,4.32275,20.4667
5.30699,2.91522,20.4833
2.85579,1.95422,20.5
13.8625,1.35396,20.5167
2.01004,3.21377,20.4667
5.34688,3.23872,20.4833
0.0831897,3.96292,19.8
0.0,3.7044,19.8167
1.04185,2.11079,19.7833
